ply
format ascii 1.0
element vertex 637
property float x
property float y
property float z
property float red
property float green
property float blue
property float alpha
end_header
0.21754816823936507 -0.007037636434160879 0.9760242139256166 1.0 0.0 0.0 1.0
0.738229269751768 -0.27189143353462125 0.6173269746676069 1.0 0.0 0.0 1.0
0.0943177426116598 -0.03433537656908552 0.9949498707696279 1.0 0.0 0.0 1.0
0.03475431965734505 -0.7025391731451412 0.7107959253271622 1.0 0.0 0.0 1.0
-0.010225694878417249 -0.0782452769738499 0.996881693981557 1.0 0.0 0.0 1.0
-0.9680722654201452 0.20176089960758486 0.148756943750018 1.0 0.0 0.0 1.0
-0.2056858655792476 -0.7350631571661982 0.6460460352620213 1.0 0.0 0.0 1.0
-0.6910051602880328 -0.4545681641519007 0.5620317184953897 1.0 0.0 0.0 1.0
-0.3697788167271088 -0.23671420055631004 0.8984598009676816 1.0 0.0 0.0 1.0
-0.27502153156150955 0.43060683420496365 0.8596167236120644 1.0 0.0 0.0 1.0
-0.035332705868211634 -0.15565094624474804 0.9871800154121562 1.0 0.0 0.0 1.0
-0.06248124993490192 0.9380401434832528 0.34084715433826196 1.0 0.0 0.0 1.0
-0.06254976410420099 -0.2425327030850322 0.9681246897713005 1.0 0.0 0.0 1.0
0.3356262414164119 0.012921877856096288 0.9419066042582803 1.0 0.0 0.0 1.0
0.45341630458308435 -0.8895047776783942 0.05652349268693575 1.0 0.0 0.0 1.0
0.5132146485693598 -0.8164320601272612 0.26466850150742294 1.0 0.0 0.0 1.0
-0.33213250830907326 -0.7437728257978516 0.5800775642351649 1.0 0.0 0.0 1.0
-0.4958305815081018 0.07167677829738965 0.8654562229796746 1.0 0.0 0.0 1.0
0.14442791122783558 0.5809281190897697 0.8010387624261306 1.0 0.0 0.0 1.0
-0.762721071677422 -0.2705345284149638 0.5874245787797258 1.0 0.0 0.0 1.0
0.7964142719149656 -0.5580634930972522 0.2330009552818368 1.0 0.0 0.0 1.0
-0.26606089440124625 0.6455565200569978 0.7158689683750148 1.0 0.0 0.0 1.0
-0.08573578144879827 -0.439111621532045 0.8943323541138728 1.0 0.0 0.0 1.0
0.6140589744115825 0.5365255702019622 0.5788539439824653 1.0 0.0 0.0 1.0
-0.22244000118634225 0.22722963692710055 0.9480965868381755 1.0 0.0 0.0 1.0
-0.0843817580655985 -0.6373219341980485 0.7659637531213974 1.0 0.0 0.0 1.0
0.37766596408294145 0.011224567031546787 0.9258738729806866 1.0 0.0 0.0 1.0
0.5526808288206224 -0.13757067894406638 0.8219599806249807 1.0 0.0 0.0 1.0
-0.011479292105344463 -0.9183566028032646 0.39558738091653917 1.0 0.0 0.0 1.0
0.010281499230409248 -0.02488732190076147 0.9996373902481757 1.0 0.0 0.0 1.0
-0.08696374366579165 -0.3843954720579126 0.919063342947049 1.0 0.0 0.0 1.0
0.33540380468410125 -0.00531009104484368 0.9420594942659007 1.0 0.0 0.0 1.0
0.04400396950583192 0.6101273035914291 0.791080478889463 1.0 0.0 0.0 1.0
0.1739098969467188 -0.027941260641113703 0.984365091669634 1.0 0.0 0.0 1.0
0.015643158359581914 -0.006601731907725394 0.9998558439756983 1.0 0.0 0.0 1.0
0.32331944608924246 -0.4519724617733144 0.8313756248406104 1.0 0.0 0.0 1.0
0.8052670655070273 0.26309507260029363 0.5313435197526618 1.0 0.0 0.0 1.0
0.012017196015297334 0.02852689241810676 0.9995207868818418 1.0 0.0 0.0 1.0
0.00146804898967106 0.004487084403676535 0.999988855390758 1.0 0.0 0.0 1.0
-0.6505936792601491 0.16821747483475435 0.7405611019132462 1.0 0.0 0.0 1.0
0.5623691024980417 0.7944364196780017 0.2293725520735763 1.0 0.0 0.0 1.0
0.26271393539459087 0.21152997759707542 0.941401326070485 1.0 0.0 0.0 1.0
-0.8107653567795847 0.3281434874837703 0.4847487884131957 1.0 0.0 0.0 1.0
-0.8281102085775569 0.5340172071833302 0.17046731323556175 1.0 0.0 0.0 1.0
0.20660892530431113 -0.20322250655301688 0.9570858711813203 1.0 0.0 0.0 1.0
-0.10130515348373383 0.17199901641281237 0.9798742798087224 1.0 0.0 0.0 1.0
0.5506151456407192 -0.38438795967963363 0.7409918068672406 1.0 0.0 0.0 1.0
0.3490162037938151 -0.8564695966683145 0.3803255440700357 1.0 0.0 0.0 1.0
-0.7914479538728563 -0.24074732061694604 0.5618281444767883 1.0 0.0 0.0 1.0
-0.350272483155472 -0.6269577102347995 0.6958686780716867 1.0 0.0 0.0 1.0
-0.43173342114000285 0.2599310712328464 0.8637372813989759 1.0 0.0 0.0 1.0
-0.29404142753690293 -0.014833590859240468 0.9556775625043633 1.0 0.0 0.0 1.0
-0.09837827325939323 -0.6229644405269597 0.776039316780685 1.0 0.0 0.0 1.0
-0.2595482209123029 0.23266900615773353 0.9372832307231528 1.0 0.0 0.0 1.0
0.4040131384020562 -0.036123822238903674 0.9140396345155787 1.0 0.0 0.0 1.0
-0.041771494705993346 -0.3556661594246607 0.9336791340016862 1.0 0.0 0.0 1.0
0.23457711069239814 -0.1422668935284876 0.961630755615148 1.0 0.0 0.0 1.0
-0.15213821857546303 0.9880407676750947 0.02508792260619335 1.0 0.0 0.0 1.0
-0.099641585160999 -0.03786910411131148 0.9943025120457102 1.0 0.0 0.0 1.0
-0.38417368355577236 0.20518625803479862 0.900171750488131 1.0 0.0 0.0 1.0
-0.4316913016953476 -0.21259815768314858 0.8766097440653435 1.0 0.0 0.0 1.0
-0.38176302062242046 -0.29162771629430867 0.877046333539005 1.0 0.0 0.0 1.0
-0.877966941622717 0.47828982549054555 0.02031975024148511 1.0 0.0 0.0 1.0
0.8648718431180611 0.001409132217208605 0.501990746257301 1.0 0.0 0.0 1.0
0.27817006827092344 -0.025372003389226197 0.9601966853526246 1.0 0.0 0.0 1.0
-0.9970833270036482 0.07016350243065775 0.030032015217081452 1.0 0.0 0.0 1.0
0.09764156513734236 -0.7068496291665618 0.7005924111097868 1.0 0.0 0.0 1.0
0.38073243381663624 -0.7944198734876473 0.4732228634036302 1.0 0.0 0.0 1.0
-0.3633638696265228 0.15875486025807614 0.918021564340663 1.0 0.0 0.0 1.0
-0.0036912611618176326 -0.008704228577032314 0.9999553044991132 1.0 0.0 0.0 1.0
-0.712581324142755 -0.5472436465891775 0.43903558825081285 1.0 0.0 0.0 1.0
-0.7472709362044266 -0.6061908625000794 0.27224765586790656 1.0 0.0 0.0 1.0
0.4011344861611509 -0.9100943541185846 0.10401629975011263 1.0 0.0 0.0 1.0
-0.3597318685383517 -0.22045817688062172 0.9066372896612945 1.0 0.0 0.0 1.0
0.2757981739244994 -0.812989447582242 0.5128191936538965 1.0 0.0 0.0 1.0
0.0628578297384762 0.119258609799856 0.9908714736176302 1.0 0.0 0.0 1.0
0.6063975679879888 -0.3505348140547708 0.7137277728054583 1.0 0.0 0.0 1.0
0.4521222798592575 0.6191550408823635 0.6420533306547255 1.0 0.0 0.0 1.0
-0.5966343211179138 0.09158551475924924 0.7972700799292856 1.0 0.0 0.0 1.0
-0.5075111215715068 -0.1937837465890765 0.8395715103784381 1.0 0.0 0.0 1.0
-0.7987819882643988 -0.28538279318643794 0.529626280104642 1.0 0.0 0.0 1.0
-0.6708562313344373 0.643770189560057 0.3681193555269327 1.0 0.0 0.0 1.0
-0.23831866629790002 -0.7187413680003734 0.653157759824487 1.0 0.0 0.0 1.0
0.7410688336408771 -0.6577902801376027 0.13464371935832875 1.0 0.0 0.0 1.0
0.4366026080126476 -0.4536202917557076 0.7769213561127157 1.0 0.0 0.0 1.0
0.8066622841601376 0.541024882441928 0.23788239929058996 1.0 0.0 0.0 1.0
0.5130024674467653 -0.16316800999776487 0.8427364172188715 1.0 0.0 0.0 1.0
-0.7032535118404333 0.3931269481829618 0.5923560590527022 1.0 0.0 0.0 1.0
-0.009425357679851282 -0.06850898012112998 0.9976059754609379 1.0 0.0 0.0 1.0
-0.6007363877955239 -0.13138130225261238 0.7885776726466416 1.0 0.0 0.0 1.0
-0.07125883631752541 0.40223202651660284 0.9127604149452467 1.0 0.0 0.0 1.0
-0.341578728302642 0.8708474302311568 0.3534808702475147 1.0 0.0 0.0 1.0
0.2332108108954355 -0.03090380988424742 0.9719350143996932 1.0 0.0 0.0 1.0
-0.7607522112194709 -0.07140226466085943 0.6451029295592962 1.0 0.0 0.0 1.0
-0.07233939952274292 -0.7260252913089803 0.6838525335599768 1.0 0.0 0.0 1.0
0.46716063723252876 0.2624078376350669 0.8443358726053191 1.0 0.0 0.0 1.0
0.22262237237807284 0.031870184592966824 0.9743836875947631 1.0 0.0 0.0 1.0
-0.9473258160008585 -0.16663233694866722 0.2735095293062633 1.0 0.0 0.0 1.0
0.5004167036564579 -0.3761418450329127 0.7798079475850712 1.0 0.0 0.0 1.0
-0.4609518995170971 -0.8090380530763338 0.36466529174852275 1.0 0.0 0.0 1.0
0.6459444825473595 0.6634785903373565 0.3775604397054576 1.0 0.0 0.0 1.0
0.10776542448297659 -0.836736346396428 0.5368974761583077 1.0 0.0 0.0 1.0
-0.20025629981496076 0.2632997077683608 0.9437005236162139 1.0 0.0 0.0 1.0
0.9112181082385146 0.32666465031337355 0.2509417570948773 1.0 0.0 0.0 1.0
-0.40964692115869134 0.03703860102347817 0.9114919319552028 1.0 0.0 0.0 1.0
0.11791989686159673 0.13019584900649953 0.9844510850345115 1.0 0.0 0.0 1.0
-0.9187526012777537 0.32970068994116614 0.2172351552987687 1.0 0.0 0.0 1.0
0.9947187512147194 -0.09856868920188117 0.028615022118679268 1.0 0.0 0.0 1.0
0.3333834222764265 -0.5444545852634781 0.7696913006763374 1.0 0.0 0.0 1.0
-0.6162759665111893 -0.7209896714288431 0.31682459941366403 1.0 0.0 0.0 1.0
0.12323084193060992 -0.8029187680853876 0.5832114637533427 1.0 0.0 0.0 1.0
0.46785641164363556 -0.10729582647673161 0.8772673387882487 1.0 0.0 0.0 1.0
-0.7735188357711165 -0.0952752279317491 0.626571018839724 1.0 0.0 0.0 1.0
-0.5062714513328781 0.4734417107757509 0.7207927330814536 1.0 0.0 0.0 1.0
0.19269125772235327 0.006960035813476983 0.981234751269467 1.0 0.0 0.0 1.0
-0.22197059612069625 0.9437934268455006 0.24491431542694708 1.0 0.0 0.0 1.0
-0.03698047676165778 -0.12807720898630728 0.9910745042007477 1.0 0.0 0.0 1.0
0.4177335262293391 0.46524687952074 0.7804127383380004 1.0 0.0 0.0 1.0
-0.283047745840756 -0.5537392191465271 0.7831071770539848 1.0 0.0 0.0 1.0
0.5597466767430654 -0.8112458933682404 0.16900816065580837 1.0 0.0 0.0 1.0
0.023727339789760483 0.7936576938864546 0.6079017011666742 1.0 0.0 0.0 1.0
0.5116300709476301 -0.8529848817127003 0.1032059207201469 1.0 0.0 0.0 1.0
-0.8743315763181145 0.28922381319247537 0.38973565468851457 1.0 0.0 0.0 1.0
0.055025548280421464 0.1454657352368759 0.9878319234102702 1.0 0.0 0.0 1.0
0.0761275555483689 0.5063040589438133 0.8589882392578198 1.0 0.0 0.0 1.0
-0.07807262855228908 0.10584279400993699 0.9913132540358299 1.0 0.0 0.0 1.0
0.4825102160155853 -0.13821953859009312 0.8649157476844405 1.0 0.0 0.0 1.0
0.5653359566223216 0.4004192455625733 0.7211516372671037 1.0 0.0 0.0 1.0
-0.8078022513525966 0.42596577142021175 0.4074416329832528 1.0 0.0 0.0 1.0
0.013850223571760176 -0.20168379902000896 0.9793527538736332 1.0 0.0 0.0 1.0
-0.19781279668854346 0.5797911304264488 0.7903874635551084 1.0 0.0 0.0 1.0
0.051133638709424056 0.004711939762589382 0.9986807040370851 1.0 0.0 0.0 1.0
-0.5983505033436415 0.7877071382433496 0.1466087975153036 1.0 0.0 0.0 1.0
0.2567024246410304 0.10000553371700557 0.9613026362230539 1.0 0.0 0.0 1.0
0.03898675377529017 -0.2903402613329326 0.9561289482487126 1.0 0.0 0.0 1.0
0.9229255849397167 0.014877479451733386 0.38469081775998454 1.0 0.0 0.0 1.0
0.5301981005410954 0.08785920922327045 0.843309393720523 1.0 0.0 0.0 1.0
-0.8451263582355706 -0.46752772509271445 0.25918963112962956 1.0 0.0 0.0 1.0
-0.5791389893060244 -0.10514686161028733 0.8084195498372758 1.0 0.0 0.0 1.0
-0.3892342425896413 0.4120707481347799 0.8238291102694242 1.0 0.0 0.0 1.0
0.2884882826156223 -0.2342364909822499 0.9283898842004964 1.0 0.0 0.0 1.0
-0.7078645434319366 -0.128622710267607 0.6945386861473675 1.0 0.0 0.0 1.0
-0.14906788526873646 0.29623650430563536 0.9434101436269826 1.0 0.0 0.0 1.0
-0.3960193663710759 -0.7611901883630592 0.5135739076305005 1.0 0.0 0.0 1.0
0.8493271300579743 -0.40919484919364824 0.3334711404917555 1.0 0.0 0.0 1.0
0.10417914132078031 0.9284268649916554 0.35660939818719173 1.0 0.0 0.0 1.0
-0.058668453820998036 0.4330259439436547 0.8994701464740005 1.0 0.0 0.0 1.0
-0.08088298348448113 -0.16299157937941217 0.983306507674008 1.0 0.0 0.0 1.0
0.07415794580853251 -0.08550736955326503 0.9935738970129699 1.0 0.0 0.0 1.0
0.6054297430940521 0.7555468473565425 0.2502074891498259 1.0 0.0 0.0 1.0
-0.100441627306942 0.3710828101309015 0.9231516817561926 1.0 0.0 0.0 1.0
-0.8938876603133384 0.09212942112837046 0.4387220310197522 1.0 0.0 0.0 1.0
-0.9455735383976069 -0.32430511748412016 0.0267745075742001 1.0 0.0 0.0 1.0
-0.2432852472004987 0.757711007211432 0.605546297193889 1.0 0.0 0.0 1.0
-0.17969407949862917 0.006590073933521022 0.9837004669708616 1.0 0.0 0.0 1.0
0.19980153947318738 0.040822633871535605 0.9789856267524744 1.0 0.0 0.0 1.0
-0.2583994586964038 -0.7747608268089088 0.5770401900975197 1.0 0.0 0.0 1.0
0.3469321866836377 -0.7402430623090523 0.5759151556837395 1.0 0.0 0.0 1.0
-0.2698814729575623 0.8037355339193968 0.5302576563045166 1.0 0.0 0.0 1.0
0.4686440283339993 0.20510028897734908 0.8592477210725027 1.0 0.0 0.0 1.0
0.2929586878178996 -0.04187889278485332 0.9552074986991723 1.0 0.0 0.0 1.0
0.5455825179293574 0.08243515358548592 0.8339929025976178 1.0 0.0 0.0 1.0
0.013338531793795403 -0.9158632626407511 0.40126869765111794 1.0 0.0 0.0 1.0
-0.6589198859678593 -0.14731291658309514 0.7376472656248958 1.0 0.0 0.0 1.0
-0.27536419327178124 -0.17046310740561768 0.946106172729785 1.0 0.0 0.0 1.0
0.08099640337168777 0.9771502327676598 0.19651209948234546 1.0 0.0 0.0 1.0
-0.5639155678578206 -0.311734020906913 0.7647359887809649 1.0 0.0 0.0 1.0
0.007008099061300657 -0.002969847950534883 0.9999710328558012 1.0 0.0 0.0 1.0
-0.30645896462080957 0.19214996824316283 0.9322882026002972 1.0 0.0 0.0 1.0
0.5406403939449289 -0.6583560306118799 0.5237129952483914 1.0 0.0 0.0 1.0
0.9368817900112624 0.33636660162454607 0.09544642925142223 1.0 0.0 0.0 1.0
-0.10990306466670857 -0.36975038021272055 0.9226082444404091 1.0 0.0 0.0 1.0
-0.6809817355894849 0.07890064773363391 0.7280374740222826 1.0 0.0 0.0 1.0
-0.43151766235589367 -0.7441770979405523 0.5098950421171814 1.0 0.0 0.0 1.0
0.11366238598878273 -0.15480035541728693 0.9813856081958909 1.0 0.0 0.0 1.0
-0.20454982014575412 -0.9770968955161478 0.05866027489746493 1.0 0.0 0.0 1.0
0.7211610440646663 0.5217015558188624 0.45580065289525284 1.0 0.0 0.0 1.0
0.2708720498213934 -0.6304674090672542 0.7274195341957627 1.0 0.0 0.0 1.0
-0.48592401271138463 0.43696783394596683 0.7569259976820959 1.0 0.0 0.0 1.0
-0.7428026036516207 -0.6691124678182303 0.023082404956408946 1.0 0.0 0.0 1.0
0.9673795024635076 -0.24185782317334664 0.0753769963802406 1.0 0.0 0.0 1.0
0.2915394884455371 -0.5873215944981217 0.7550219012141955 1.0 0.0 0.0 1.0
0.17888172268748376 0.4233340848499263 0.8881382673281414 1.0 0.0 0.0 1.0
0.3758398429444401 -0.23300815227586913 0.8969122662939132 1.0 0.0 0.0 1.0
0.9711866452752128 0.0704762296375569 0.2276611541197854 1.0 0.0 0.0 1.0
0.2695920715125078 -0.3726691150730054 0.887940226393814 1.0 0.0 0.0 1.0
0.055576155817139684 0.032062468259509654 0.9979395217315009 1.0 0.0 0.0 1.0
-0.7062008682864106 -0.27251593966041615 0.6534641507095246 1.0 0.0 0.0 1.0
-0.6313190756176883 0.29636033033560377 0.7166636445115654 1.0 0.0 0.0 1.0
-0.16948097495173717 0.27771756460783226 0.9455946031136722 1.0 0.0 0.0 1.0
0.6626791757267949 0.3604933250104645 0.6564304020084348 1.0 0.0 0.0 1.0
0.2152598823434427 0.23045506082706016 0.9489750513014994 1.0 0.0 0.0 1.0
-0.3833233520402368 -0.592493197604317 0.7085301818364894 1.0 0.0 0.0 1.0
0.6037112498285593 -0.059123872142863354 0.7950076066134671 1.0 0.0 0.0 1.0
-0.8017559235005665 0.5968887698493777 0.030186678509747367 1.0 0.0 0.0 1.0
0.4266905844560589 0.7575459477670159 0.49402356437554695 1.0 0.0 0.0 1.0
-0.9732182996437664 -0.00985349869482066 0.2296716129650503 1.0 0.0 0.0 1.0
0.02009632697028682 0.9996934342727294 0.014462887481401294 1.0 0.0 0.0 1.0
0.21451154989982466 -0.0726968734775986 0.9740122994840247 1.0 0.0 0.0 1.0
0.9739562975521986 0.22256871294999706 0.043270064411735365 1.0 0.0 0.0 1.0
0.12381842290179891 -0.013905545275436046 0.992207455102361 1.0 0.0 0.0 1.0
0.7505391110259333 -0.39547816018727333 0.5294223905685241 1.0 0.0 0.0 1.0
-0.010731480328768504 -0.28335360120035835 0.9589554588283763 1.0 0.0 0.0 1.0
-0.24516976717231437 0.600216086659582 0.7613359538204736 1.0 0.0 0.0 1.0
0.9697197234789706 -0.2110658047815781 0.12286123858961139 1.0 0.0 0.0 1.0
0.559993052459412 -0.7793336720649007 0.28115264320832606 1.0 0.0 0.0 1.0
-0.7014587033302563 -0.40429124090216306 0.5869448696871152 1.0 0.0 0.0 1.0
-0.37530016081590645 -0.028523736638030688 0.9264643467180801 1.0 0.0 0.0 1.0
0.12533644535510907 0.5499787535643322 0.8257203800885439 1.0 0.0 0.0 1.0
-0.22262577039573855 0.28849036235776554 0.9312416856983953 1.0 0.0 0.0 1.0
-0.05108949958166316 -0.05856994322673517 0.9969751374948687 1.0 0.0 0.0 1.0
0.7537200041194714 0.2088419261165713 0.6231301672091192 1.0 0.0 0.0 1.0
-0.9421914891957508 0.25485609640694773 0.21753980741764636 1.0 0.0 0.0 1.0
-0.6504300836528296 -0.7339202141852671 0.195708521760359 1.0 0.0 0.0 1.0
-0.01977980373451954 -0.7318660040301768 0.681161443058197 1.0 0.0 0.0 1.0
-0.9258540242201386 -0.2745584956620863 0.2596381295094151 1.0 0.0 0.0 1.0
-0.9853808421837346 0.06433835291710714 0.15775034770544097 1.0 0.0 0.0 1.0
0.02541783539286685 0.46059974336986204 0.8872439405549964 1.0 0.0 0.0 1.0
-0.47848472664081126 0.373107140906047 0.7948857954299998 1.0 0.0 0.0 1.0
-0.2682943414973314 0.6039580081102 0.7505017460073449 1.0 0.0 0.0 1.0
0.24242830312435487 0.8668025463640765 0.43575436137920504 1.0 0.0 0.0 1.0
-0.10518039003126231 -0.48738547378212466 0.8668289828443931 1.0 0.0 0.0 1.0
-0.11864606684743667 -0.8761687780830313 0.46717382539491786 1.0 0.0 0.0 1.0
0.8481896897429104 0.028534026370667504 0.5289234912091763 1.0 0.0 0.0 1.0
-0.46748089138458565 -0.7972436906834163 0.3819216069506388 1.0 0.0 0.0 1.0
-0.22434874579866879 -0.866538336502928 0.44584633185583417 1.0 0.0 0.0 1.0
0.9620429831942958 -0.2566917232282338 0.09264263442249276 1.0 0.0 0.0 1.0
-0.8275047892619494 -0.28189622853721863 0.4855618807989658 1.0 0.0 0.0 1.0
-0.5693166356536482 0.5350893531189304 0.6241457782816255 1.0 0.0 0.0 1.0
-0.28133312699769925 0.940458591595809 0.19075982057897825 1.0 0.0 0.0 1.0
-0.5120620089630868 -0.24557428043730808 0.8230952385747266 1.0 0.0 0.0 1.0
0.31754465012133865 0.028901285552804305 0.9478027805786983 1.0 0.0 0.0 1.0
0.3142959005339988 0.3171486608168838 0.8947819923587979 1.0 0.0 0.0 1.0
-0.07652726214486931 0.43173105760088026 0.898750172212187 1.0 0.0 0.0 1.0
0.12234580286639027 0.16925497029094014 0.9779490066219155 1.0 0.0 0.0 1.0
-0.8494792311911474 0.3002470202826247 0.43386260796051807 1.0 0.0 0.0 1.0
-0.4940014470464725 0.7286106197341099 0.4744355963949873 1.0 0.0 0.0 1.0
0.26974620123864124 0.34237354312599166 0.9000096354399084 1.0 0.0 0.0 1.0
0.06725235262539206 -0.38139427525615127 0.9219628668597152 1.0 0.0 0.0 1.0
-0.18579025338913632 0.39176503484961656 0.9011116130729195 1.0 0.0 0.0 1.0
-0.09136658600505573 0.9638092688484249 0.25044728036783653 1.0 0.0 0.0 1.0
-0.4519936120801878 0.1368568420041057 0.8814601405822998 1.0 0.0 0.0 1.0
0.13770815900419153 0.08852787259838217 0.986508630837501 1.0 0.0 0.0 1.0
0.535459836119902 -0.2558706851238594 0.8048682851229103 1.0 0.0 0.0 1.0
-0.02867033254734268 -0.0023472323574740992 0.9995861656365024 1.0 0.0 0.0 1.0
-0.9911656618730933 -0.07083662196407096 0.11212851426997582 1.0 0.0 0.0 1.0
0.5627832943801334 -0.5001581809408989 0.65811606697036 1.0 0.0 0.0 1.0
0.538897192592612 0.8419977730990891 0.02509115206555044 1.0 0.0 0.0 1.0
0.23586121348929992 0.039066346273636574 0.9710011887532288 1.0 0.0 0.0 1.0
-0.34092040598228335 -0.6114483394052901 0.7140757698055497 1.0 0.0 0.0 1.0
-0.5195621531186114 -0.06450411198189276 0.8519943594790871 1.0 0.0 0.0 1.0
0.2659540233371977 -0.48170701341912575 0.8350010842469509 1.0 0.0 0.0 1.0
-0.41593564400717675 -0.16824747666018364 0.8936947614492411 1.0 0.0 0.0 1.0
0.005987954022363377 0.009903443057447156 0.9999330308686848 1.0 0.0 0.0 1.0
-0.7768383753937337 0.10017273698241891 0.6216812376781816 1.0 0.0 0.0 1.0
0.4482005228438919 -0.8936207827809497 0.02362600060155843 1.0 0.0 0.0 1.0
-0.3569212025099161 -0.2553068079012194 0.8985686891040467 1.0 0.0 0.0 1.0
-0.2981843403202114 -0.3291134212339788 0.8959745839874397 1.0 0.0 0.0 1.0
-0.2149842504376383 -0.9734904229981971 0.07809077022643822 1.0 0.0 0.0 1.0
-0.2521278236822721 -0.8206504386052513 0.5128005637109322 1.0 0.0 0.0 1.0
-0.7213008316152647 -0.002489440071636386 0.6926174362512523 1.0 0.0 0.0 1.0
-0.8867101567001036 0.32457409100244483 0.32923662836144835 1.0 0.0 0.0 1.0
0.247165097329055 -0.3012287489946145 0.9209618099799025 1.0 0.0 0.0 1.0
0.2592489179123166 -0.8446861931925292 0.46828968981946006 1.0 0.0 0.0 1.0
0.5842789144842654 0.46422083384721385 0.6656704646529589 1.0 0.0 0.0 1.0
-0.390582709351147 -0.06604172154115784 0.9181958604632223 1.0 0.0 0.0 1.0
0.42504474682272764 -0.6228655993422446 0.6567917541766416 1.0 0.0 0.0 1.0
-0.08091583914134731 0.5186737041805743 0.8511346635918745 1.0 0.0 0.0 1.0
-0.13840827185961826 -0.08978087948828202 0.9862973912361039 1.0 0.0 0.0 1.0
0.3732141997841443 0.024016111597818544 0.9274343035833869 1.0 0.0 0.0 1.0
-0.14998788091407758 -0.022464015069955913 0.9884325994248879 1.0 0.0 0.0 1.0
-0.5498815053742054 -0.3702938773639097 0.7486740107912119 1.0 0.0 0.0 1.0
0.7474881950950909 -0.0637662709568552 0.6612074265173828 1.0 0.0 0.0 1.0
-0.3630293197216412 -0.93086412465235 0.041251599455741715 1.0 0.0 0.0 1.0
-0.6621434030302876 -0.14770843542761858 0.7346756644445189 1.0 0.0 0.0 1.0
0.09558180660073526 0.2511946614320161 0.963205772571466 1.0 0.0 0.0 1.0
0.050860568214439905 0.5213488816105427 0.8518265939992367 1.0 0.0 0.0 1.0
-0.5401236819982003 -0.8184286784112427 0.19606352669156493 1.0 0.0 0.0 1.0
-0.4807793509025971 -0.8705902938337616 0.1045167739079302 1.0 0.0 0.0 1.0
0.11099229540415255 0.0026344435010194015 0.9938177750817083 1.0 0.0 0.0 1.0
0.2750417147390293 0.05611782336784911 0.9597931261755679 1.0 0.0 0.0 1.0
0.31620463607256294 0.7435768266388441 0.5891588334328226 1.0 0.0 0.0 1.0
0.1927779334022693 0.05519914848977283 0.9796885843976924 1.0 0.0 0.0 1.0
-0.7308511973112003 0.6792882272690123 0.06651339476006266 1.0 0.0 0.0 1.0
-0.29513170593639004 -0.15794761069336094 0.9423108979669792 1.0 0.0 0.0 1.0
0.24457269080920882 0.2197623755441746 0.9443985902178826 1.0 0.0 0.0 1.0
-0.6869722980518376 0.54590998678371 0.4796366833752259 1.0 0.0 0.0 1.0
0.4647716332196331 0.18730667906379814 0.8653921289984361 1.0 0.0 0.0 1.0
0.8204819887401821 0.5307356570546731 0.21243579849851174 1.0 0.0 0.0 1.0
0.027765784923425928 -0.19172692483853032 0.9810554762497107 1.0 0.0 0.0 1.0
-0.3052016369399518 0.0013233501925622587 0.9522868315552001 1.0 0.0 0.0 1.0
-0.0421764905410087 -0.014217039470007135 0.9990090186952031 1.0 0.0 0.0 1.0
0.6545398165759264 -0.7215351910916662 0.22575339761134405 1.0 0.0 0.0 1.0
0.7272963971811943 -0.3648130526366993 0.5813358644304919 1.0 0.0 0.0 1.0
-0.39605391360211994 0.9098584067312551 0.12368903435998845 1.0 0.0 0.0 1.0
-0.957620111495763 -0.18817603337172314 0.21806765583948223 1.0 0.0 0.0 1.0
0.9847049413633683 -0.17406669894962917 0.007547368504637156 1.0 0.0 0.0 1.0
-0.6559971551815512 0.0024817381552510397 0.7547592817378537 1.0 0.0 0.0 1.0
0.5017692042344615 0.26328165471638143 0.823960215041794 1.0 0.0 0.0 1.0
-0.30465826253729605 -0.29323774124297564 0.9061980855080601 1.0 0.0 0.0 1.0
0.3285017653816931 -0.4922680884823538 0.806076124942949 1.0 0.0 0.0 1.0
-0.761748006984369 0.6032600699012086 0.23625677115826965 1.0 0.0 0.0 1.0
0.5737203559550671 -0.5125861048124525 0.6388273932103951 1.0 0.0 0.0 1.0
0.877030452814202 -0.4755199950770152 0.06854428581924907 1.0 0.0 0.0 1.0
0.7253083570548037 0.39560623877283724 0.563403488656638 1.0 0.0 0.0 1.0
0.5958175730135398 0.7826661484881248 0.18009752829791936 1.0 0.0 0.0 1.0
-0.3923841946176409 0.18339985200786646 0.9013318690126061 1.0 0.0 0.0 1.0
0.39960292896738514 0.16143058877396538 0.9023622688082528 1.0 0.0 0.0 1.0
0.3103798129466626 -0.8219407018937722 0.4775749724237729 1.0 0.0 0.0 1.0
-0.13988970203809936 0.2746932835012266 0.9513014618211235 1.0 0.0 0.0 1.0
0.5196293990191772 -0.2902085239741165 0.8035946119081022 1.0 0.0 0.0 1.0
0.37096369167251847 0.5336342624701401 0.7600134297357162 1.0 0.0 0.0 1.0
0.5128356102472981 0.5698413724443195 0.6420906844932855 1.0 0.0 0.0 1.0
0.01677988234620986 0.09579249837669701 0.9952598820424732 1.0 0.0 0.0 1.0
0.003919778101390841 0.3110467378873175 0.9503865330428954 1.0 0.0 0.0 1.0
-0.40154015713259716 -0.0712569025614503 0.9130651433754751 1.0 0.0 0.0 1.0
-0.6428534627875371 0.3851099237708063 0.6621402963083554 1.0 0.0 0.0 1.0
0.44994266747767125 0.3434611656771025 0.8243700768797978 1.0 0.0 0.0 1.0
0.8723018104565634 -0.1274373800746687 0.4720691322612672 1.0 0.0 0.0 1.0
0.031058628766721306 -0.7075367327292531 0.7059937205230262 1.0 0.0 0.0 1.0
0.26310989116778133 -0.4532996199093061 0.8516411449429605 1.0 0.0 0.0 1.0
-0.3105843092961136 0.37774439988577363 0.8722651862673373 1.0 0.0 0.0 1.0
0.665741092369723 0.7458922854908621 0.020820575774620907 1.0 0.0 0.0 1.0
0.7563547078337816 -0.6224015026572759 0.20135522200241088 1.0 0.0 0.0 1.0
0.6260552573578294 0.5164449329312619 0.584242625956243 1.0 0.0 0.0 1.0
0.2082258321238868 -0.4694262885563904 0.8580681572279018 1.0 0.0 0.0 1.0
-0.8683492609006033 0.495547477459291 0.020056387439164214 1.0 0.0 0.0 1.0
0.9698273775970275 0.24093409414006958 0.03722391629285434 1.0 0.0 0.0 1.0
0.0194742567620786 -0.9686736494394689 0.24757244233796774 1.0 0.0 0.0 1.0
0.3498974876161531 -0.9320156509290524 0.09443820510364836 1.0 0.0 0.0 1.0
-0.6601446684571892 0.5552596081199501 0.5058614279602932 1.0 0.0 0.0 1.0
-0.9676615348403083 -0.2522027613981084 0.0049921071370840776 1.0 0.0 0.0 1.0
-0.42285765301832073 0.5475250409844695 0.7220856838206894 1.0 0.0 0.0 1.0
-0.43212924384146467 -0.8907776376066041 0.14063967063741598 1.0 0.0 0.0 1.0
0.6394990574896305 -0.33611718394946233 0.6914233103705412 1.0 0.0 0.0 1.0
0.09829960562011315 -0.3513821993447781 0.9310573223591321 1.0 0.0 0.0 1.0
-0.24374921245194092 0.21881515514268765 0.9448313337887033 1.0 0.0 0.0 1.0
0.20784894409986845 0.0853601412835823 0.974429301035543 1.0 0.0 0.0 1.0
0.30945913806476216 -0.3543440112881523 0.8824258402451935 1.0 0.0 0.0 1.0
0.7117026101204175 0.5827307518487321 0.3923063415210062 1.0 0.0 0.0 1.0
0.16168796349189354 0.5988093206311488 0.7844006629185792 1.0 0.0 0.0 1.0
0.03658144462492663 0.012480570978580078 0.9992527374279254 1.0 0.0 0.0 1.0
-0.8253063318534732 -0.3429795812273198 0.4485916466717774 1.0 0.0 0.0 1.0
-0.570619426386818 0.5476244862537829 0.6119647802653838 1.0 0.0 0.0 1.0
0.7531087836673466 -0.6564189630439888 0.04406024193470406 1.0 0.0 0.0 1.0
-0.17690405538636536 -0.9158345763425222 0.3604885351344349 1.0 0.0 0.0 1.0
0.7352835125389077 0.05236085900868336 0.675734042824778 1.0 0.0 0.0 1.0
0.702109978720384 0.22481208546705883 0.6756486542643402 1.0 0.0 0.0 1.0
-0.03886302562707205 0.9037954783969491 0.42619643178743233 1.0 0.0 0.0 1.0
-0.37232448525775663 -0.8653493204526199 0.33547731856227697 1.0 0.0 0.0 1.0
0.6807711535571073 -0.6481878180796647 0.3411791156821429 1.0 0.0 0.0 1.0
-0.3908199110004962 -0.42118582316854025 0.8184511589138374 1.0 0.0 0.0 1.0
0.7100628144519299 -0.26782144430553034 0.6512161496021917 1.0 0.0 0.0 1.0
0.69777338913046 -0.7120616249638697 0.0779778152759163 1.0 0.0 0.0 1.0
0.5012077270798833 -0.3051490987971473 0.8097375141480763 1.0 0.0 0.0 1.0
-0.6942213106058789 0.4808820536076055 0.5355457239291411 1.0 0.0 0.0 1.0
-0.218131814561485 0.09118711458230389 0.9716498451655657 1.0 0.0 0.0 1.0
0.5439941016894588 -0.7650077843727491 0.3447223624544488 1.0 0.0 0.0 1.0
0.8424999687559773 0.5340344534299951 0.07071778556985273 1.0 0.0 0.0 1.0
-0.9411383197968378 -0.2736386962078102 0.19844527444027316 1.0 0.0 0.0 1.0
-0.5496514211338739 0.19611458225103606 0.8120482657293313 1.0 0.0 0.0 1.0
-0.6766496240679446 -0.4036261399534801 0.6158175260537515 1.0 0.0 0.0 1.0
0.6451169296227607 0.7337978335424559 0.2129903439184525 1.0 0.0 0.0 1.0
-0.7846049671027243 0.5526777321998919 0.28096684845034237 1.0 0.0 0.0 1.0
-0.1662260919613041 -0.2198818547586175 0.9612600357339228 1.0 0.0 0.0 1.0
-0.2672370911210132 -0.9347437119256745 0.23417628006395394 1.0 0.0 0.0 1.0
0.30935217471057563 0.36674622912517346 0.8773815791457574 1.0 0.0 0.0 1.0
0.021763341063456933 0.203066700504937 0.9789230164480729 1.0 0.0 0.0 1.0
0.17565199023514755 -0.37579959954334136 0.9099016646371714 1.0 0.0 0.0 1.0
0.6755510360030105 0.2863546412196146 0.6794349249245618 1.0 0.0 0.0 1.0
0.2836603129298717 0.7702303876443501 0.5712109739997661 1.0 0.0 0.0 1.0
-0.9211853432703112 -0.15133052964888036 0.3584921674739184 1.0 0.0 0.0 1.0
-0.027156846359050964 -0.0041449775912538265 0.9996225912096021 1.0 0.0 0.0 1.0
-0.17289458536126542 -0.6625457450269066 0.728793933906902 1.0 0.0 0.0 1.0
-0.5626829369624293 -0.4058888644169515 0.7201681346697121 1.0 0.0 0.0 1.0
-0.16781056561072594 0.09690594706243252 0.9810447754783373 1.0 0.0 0.0 1.0
0.17991460818446664 0.9135640502082885 0.36473478025663764 1.0 0.0 0.0 1.0
-0.3502848647647994 -0.0606913707528849 0.9346748477587498 1.0 0.0 0.0 1.0
0.2815681333489134 0.7580529827472994 0.58828144763398 1.0 0.0 0.0 1.0
-0.45630592436585665 -0.8219213902780103 0.3409254047325949 1.0 0.0 0.0 1.0
-0.25603206724306515 -0.38900631070839353 0.8849416199796951 1.0 0.0 0.0 1.0
-0.24537309418002548 -0.28300869631972797 0.927199073802346 1.0 0.0 0.0 1.0
-0.5824663995710447 -0.27792906304800863 0.763864077754675 1.0 0.0 0.0 1.0
-0.5081215875022103 -0.0959642405138279 0.8559224946552333 1.0 0.0 0.0 1.0
-0.7745805862401262 -0.16101606387990852 0.6116361194309277 1.0 0.0 0.0 1.0
-0.4978670026434384 -0.508878431100027 0.7022614826686808 1.0 0.0 0.0 1.0
-0.36485660599859937 0.3442650820985844 0.8650787306984477 1.0 0.0 0.0 1.0
0.4821356896341422 -0.8270170597032119 0.28911582409280884 1.0 0.0 0.0 1.0
0.926346075509061 0.3711392389796499 0.06433205793822862 1.0 0.0 0.0 1.0
0.15042827574270926 0.05221283616549198 0.9872411830938936 1.0 0.0 0.0 1.0
0.9128685897901732 -0.4081336118153659 0.009894073026045587 1.0 0.0 0.0 1.0
0.811739975554616 -0.42375242267762486 0.4018856757355687 1.0 0.0 0.0 1.0
0.5201173969524481 0.34043232684664754 0.7833158521472593 1.0 0.0 0.0 1.0
0.5084825389284097 0.674594201346844 0.5351337880512986 1.0 0.0 0.0 1.0
0.40976789878031106 -0.6301498150044534 0.6595464197302734 1.0 0.0 0.0 1.0
-0.2825301891837321 0.2012193096355401 0.937916564322009 1.0 0.0 0.0 1.0
-0.6363413198081825 0.2712711978839875 0.722136872000985 1.0 0.0 0.0 1.0
0.12046026817191999 0.3363976832484505 0.93398389841422 1.0 0.0 0.0 1.0
0.010711251315336845 0.03558711980630583 0.9993091743795569 1.0 0.0 0.0 1.0
0.35672986950071295 -0.7094366255334236 0.6078186197853379 1.0 0.0 0.0 1.0
0.14199384342227295 -0.3930065974099314 0.9085062260779718 1.0 0.0 0.0 1.0
-0.04590145989216998 -0.13389011802285009 0.9899325695599648 1.0 0.0 0.0 1.0
0.0845401572547176 0.8630299377096434 0.49802840122651304 1.0 0.0 0.0 1.0
-0.6021958568663969 -0.06340348741926162 0.7958267071140687 1.0 0.0 0.0 1.0
-0.36543426432087495 -0.7568642056684697 0.5418619497972681 1.0 0.0 0.0 1.0
-0.057114832311333984 0.02045021106699599 0.9981581461859456 1.0 0.0 0.0 1.0
0.013912993500542465 -0.027828824959027207 0.9995158753682976 1.0 0.0 0.0 1.0
-0.03488536316928827 -0.7280950409470766 0.6845879218806172 1.0 0.0 0.0 1.0
0.3080076236918134 0.3957710466121864 0.8651569698102286 1.0 0.0 0.0 1.0
0.5938953816253245 0.2490291197178165 0.7650312236874255 1.0 0.0 0.0 1.0
-0.7164264603713035 -0.6947221734344605 0.06398615958427892 1.0 0.0 0.0 1.0
0.7109396599935263 -0.5837995562202067 0.3921005967929388 1.0 0.0 0.0 1.0
-0.823411621645534 -0.4054541700683453 0.3969889385275879 1.0 0.0 0.0 1.0
-0.8888474324904035 0.37126861035710546 0.26853279263196433 1.0 0.0 0.0 1.0
0.9165761710670335 -0.04511795930244701 0.39730654711504426 1.0 0.0 0.0 1.0
0.002605229052000596 -0.1516790909329621 0.9884263584887528 1.0 0.0 0.0 1.0
-0.40445660212614554 0.3866454264096245 0.8288064739329034 1.0 0.0 0.0 1.0
0.7113084968093003 -0.15212491209256854 0.6862202514409802 1.0 0.0 0.0 1.0
0.4675390371044243 0.30348116090622973 0.8302448035118768 1.0 0.0 0.0 1.0
-0.47278559919435564 -0.04868461219334458 0.8798315666819515 1.0 0.0 0.0 1.0
-0.40052332768739635 0.37199519961738065 0.8373772360411045 1.0 0.0 0.0 1.0
-0.06274474818050313 0.6476037513252466 0.7593895428864118 1.0 0.0 0.0 1.0
-0.4669412478466276 -0.18262498979704084 0.8652248171204204 1.0 0.0 0.0 1.0
0.6554440171751781 -0.32873269225845764 0.6799470254290191 1.0 0.0 0.0 1.0
0.5475237923059367 0.7904189528654912 0.2746917832952893 1.0 0.0 0.0 1.0
-0.39973086832449417 0.2800444687675133 0.8728060084699618 1.0 0.0 0.0 1.0
0.22315535674524387 0.9640641561091526 0.14415959788182806 1.0 0.0 0.0 1.0
-0.08671190481151946 -0.10180704618971945 0.9910178459089837 1.0 0.0 0.0 1.0
-0.12173452725146312 -0.0736468449605999 0.9898266752832093 1.0 0.0 0.0 1.0
0.4241837772155642 0.13112499463969382 0.8960325657741891 1.0 0.0 0.0 1.0
0.08583876901164264 -0.0457697560133245 0.9952571703680644 1.0 0.0 0.0 1.0
-0.2300485384710575 -0.3369214028556786 0.9129959683619044 1.0 0.0 0.0 1.0
0.03341054989443093 -0.09056376270466823 0.9953300658779096 1.0 0.0 0.0 1.0
0.9464125986759843 0.2685311810718714 0.1794274166885216 1.0 0.0 0.0 1.0
-0.1470713085378151 -0.06293301992519007 0.9871218086984354 1.0 0.0 0.0 1.0
-0.3818324671910345 0.43134022100567476 0.8174041722071055 1.0 0.0 0.0 1.0
-0.012530421910387514 0.841436076040452 0.5402113646198075 1.0 0.0 0.0 1.0
-0.1795549522175755 -0.9835017299908007 0.022008322045238397 1.0 0.0 0.0 1.0
0.40693585530890247 -0.14218513318743448 0.9023228898595465 1.0 0.0 0.0 1.0
-0.7491522096683929 0.5143961648240217 0.4173338619897767 1.0 0.0 0.0 1.0
0.8119541047206819 0.5589013879345422 0.16840359376236194 1.0 0.0 0.0 1.0
-0.07546753362368422 0.4664072027718189 0.8813449793192931 1.0 0.0 0.0 1.0
-0.02774805887175989 0.04141012061455355 0.9987568508598765 1.0 0.0 0.0 1.0
-0.5766966575004216 0.2596627333822924 0.7745942357907641 1.0 0.0 0.0 1.0
-0.021732936048443337 0.4579540707469879 0.8887101600504952 1.0 0.0 0.0 1.0
-0.9738912622230291 -0.21986401970669453 0.056529834636673326 1.0 0.0 0.0 1.0
0.9995538337885607 -0.00454141777510311 0.02952132929227278 1.0 0.0 0.0 1.0
0.4535052197064596 -0.8583408439363244 0.23996668795829657 1.0 0.0 0.0 1.0
0.43409746030472374 -0.3663785612179097 0.8229982653911753 1.0 0.0 0.0 1.0
0.5284268555864737 -0.38323800044071293 0.7575577161597632 1.0 0.0 0.0 1.0
-0.7359107159604636 -0.3726624296504288 0.5652947299078569 1.0 0.0 0.0 1.0
-0.7112920601860171 0.7013830126691419 0.04610287036064356 1.0 0.0 0.0 1.0
0.5183801559558289 0.7544339162769088 0.40263069913047694 1.0 0.0 0.0 1.0
0.5660368205306192 -0.33821405920467945 0.7518068687900379 1.0 0.0 0.0 1.0
0.07349698628158567 0.23049880213014348 0.970292994524898 1.0 0.0 0.0 1.0
-0.8050438818606879 0.48957037280935284 0.33500029603865444 1.0 0.0 0.0 1.0
0.06446087683893098 0.35824654642838855 0.9313990591198213 1.0 0.0 0.0 1.0
0.6693760821621493 -0.17262086153766268 0.7225909622955763 1.0 0.0 0.0 1.0
-0.04900004970865368 0.1412873609411259 0.9887552157975407 1.0 0.0 0.0 1.0
-0.2993603436522657 0.39200046563756297 0.8698959820509179 1.0 0.0 0.0 1.0
-0.3488428308435424 0.8023679508574159 0.48426681778327013 1.0 0.0 0.0 1.0
0.3481218501967505 -0.9232515615273462 0.16253532401575987 1.0 0.0 0.0 1.0
-0.042561249915890983 -0.030423045523606515 0.9986305514586793 1.0 0.0 0.0 1.0
0.005253800608163493 -0.3466770263037698 0.9379698486691057 1.0 0.0 0.0 1.0
0.17288582411707187 0.06306130858430152 0.9829210360852983 1.0 0.0 0.0 1.0
0.9298413092215894 0.3668952248782511 0.02798273801147148 1.0 0.0 0.0 1.0
0.12329443464711597 0.6163327893752695 0.7777739871749041 1.0 0.0 0.0 1.0
-0.2157401071716562 0.32019603910445854 0.922459052044793 1.0 0.0 0.0 1.0
0.2278512504679719 0.8061060103417468 0.5461473315425914 1.0 0.0 0.0 1.0
-0.8106891433534066 0.1958800069387164 0.5517373793124846 1.0 0.0 0.0 1.0
0.3253585142617139 0.6029180504716944 0.7284446867215255 1.0 0.0 0.0 1.0
-0.000311662512254612 -0.310036196239842 0.9507247024704937 1.0 0.0 0.0 1.0
-0.9936853679094354 0.10215490895810946 0.04640866490700168 1.0 0.0 0.0 1.0
-0.21274381858789998 0.804117490071559 0.5550992071816129 1.0 0.0 0.0 1.0
-0.2002464477836538 -0.5714734241347051 0.7958137254771269 1.0 0.0 0.0 1.0
-0.5251826681072901 -0.27408185516092637 0.8056440292035019 1.0 0.0 0.0 1.0
-0.3291975031841623 -0.944157900565928 0.01395932291528319 1.0 0.0 0.0 1.0
-0.28532407595209913 -0.5076734696920604 0.812931620650166 1.0 0.0 0.0 1.0
-0.37979319023958985 0.8549196809691945 0.35336874754166564 1.0 0.0 0.0 1.0
0.3120085528519386 0.08071240563168391 0.9466446907495892 1.0 0.0 0.0 1.0
0.5519418299437178 -0.41443038022706447 0.723607404815091 1.0 0.0 0.0 1.0
-0.13818062825717256 -0.8834783210882466 0.44762950097323323 1.0 0.0 0.0 1.0
0.3000055715945144 0.29603148658181067 0.9068417811087068 1.0 0.0 0.0 1.0
-0.7509175925637263 0.47633553151907265 0.45741363183746486 1.0 0.0 0.0 1.0
0.08636164818971073 -0.6660654964857899 0.7408767914525969 1.0 0.0 0.0 1.0
-0.0956503988058214 -0.9950531675971377 0.026836446545510394 1.0 0.0 0.0 1.0
-0.05535961081191194 -0.9332674913740524 0.35489026900597953 1.0 0.0 0.0 1.0
0.30652685504658417 -0.4883078150901637 0.817065948903221 1.0 0.0 0.0 1.0
0.3516328086762225 -0.018712104488046864 0.9359509736135219 1.0 0.0 0.0 1.0
-0.137207406452265 -0.04403267885573518 0.9895631616058828 1.0 0.0 0.0 1.0
-0.31027654810516503 0.5540208820970127 0.7725214080505415 1.0 0.0 0.0 1.0
0.5062114660434226 -0.6105861276821914 0.6090439494225648 1.0 0.0 0.0 1.0
0.7430244413868603 0.05369989128671828 0.6671064391665987 1.0 0.0 0.0 1.0
-0.14950888858458544 0.9622910663205989 0.22725095360364703 1.0 0.0 0.0 1.0
0.27267932926490296 0.834478489476515 0.4788440602039836 1.0 0.0 0.0 1.0
-0.5056525910272297 0.3802446021138208 0.7744220423972651 1.0 0.0 0.0 1.0
-0.0612490487341758 -0.6298775373676879 0.7742756885946863 1.0 0.0 0.0 1.0
0.23674040456407974 -0.9615845310920186 0.1389574410075929 1.0 0.0 0.0 1.0
0.0947754477970159 0.06401008859950826 0.9934386357759385 1.0 0.0 0.0 1.0
0.8747022656725141 0.13204748179530276 0.4663254324813191 1.0 0.0 0.0 1.0
0.22924166603169926 -0.5449788144428518 0.8065025420688237 1.0 0.0 0.0 1.0
0.7670893648727714 0.6410379808600618 0.025381359182361254 1.0 0.0 0.0 1.0
-0.7213322025140018 -0.28554334946480225 0.6309872020831493 1.0 0.0 0.0 1.0
0.33300914678324695 0.7972970302870948 0.5034107206387972 1.0 0.0 0.0 1.0
0.7471412223417367 0.6097089000874628 0.2646413630403082 1.0 0.0 0.0 1.0
0.7507488223344932 -0.6091745319719468 0.2555045897046301 1.0 0.0 0.0 1.0
-0.7454293443889728 0.44380875847960594 0.49736191894898524 1.0 0.0 0.0 1.0
-0.32645556901592415 0.2052961038977442 0.9226485090124492 1.0 0.0 0.0 1.0
0.6502064142853128 0.7426429727616111 0.16035284166497737 1.0 0.0 0.0 1.0
-0.22917386731174244 -0.009917104063234724 0.9733349832346411 1.0 0.0 0.0 1.0
-0.5864766654663351 0.33635074645338725 0.7368265034753688 1.0 0.0 0.0 1.0
0.44561197974725286 -0.8814024358325948 0.15671537772057428 1.0 0.0 0.0 1.0
0.4035948010580802 -0.5477252801421445 0.7328766977139457 1.0 0.0 0.0 1.0
0.048645140567977294 0.9883166423355644 0.14444329261574587 1.0 0.0 0.0 1.0
0.7137397041459385 -0.01988231957384139 0.7001287939329679 1.0 0.0 0.0 1.0
-0.3328587565297078 0.31257130095396185 0.8896652348054543 1.0 0.0 0.0 1.0
0.8565322591638009 0.3155929282144074 0.4083547387661994 1.0 0.0 0.0 1.0
0.12391363186085114 -0.19961554333770548 0.97200774003968 1.0 0.0 0.0 1.0
0.42207576526738255 -0.34617944270920975 0.837861469348898 1.0 0.0 0.0 1.0
-0.6297429428648441 0.7415901072919285 0.23123135314803636 1.0 0.0 0.0 1.0
0.2966387631982961 0.17227550472549344 0.9393224125079533 1.0 0.0 0.0 1.0
0.500166497731521 0.8649170617729145 0.04185631136510828 1.0 0.0 0.0 1.0
0.005246800277208405 -0.023701231329034102 0.9997053179414117 1.0 0.0 0.0 1.0
-0.0011167009040099177 -0.003946203703536198 0.9999915901923483 1.0 0.0 0.0 1.0
-0.11311320818428468 0.9076813527488745 0.4041286478415402 1.0 0.0 0.0 1.0
-0.187051358063191 -0.8418475926051255 0.5062651679423249 1.0 0.0 0.0 1.0
-0.03125500400792112 -0.021710693006660894 0.9992756229057305 1.0 0.0 0.0 1.0
-0.5451106162464694 0.18194714529986883 0.8183823387467639 1.0 0.0 0.0 1.0
-0.7529296578420351 0.2139583429300595 0.6223493856608998 1.0 0.0 0.0 1.0
-0.021168730228313077 -0.12110583686035434 0.9924138557773535 1.0 0.0 0.0 1.0
-0.2316299393135417 -0.5453670357181402 0.8055571783341104 1.0 0.0 0.0 1.0
-0.5561537679888294 -0.775439383171716 0.2989761685788619 1.0 0.0 0.0 1.0
0.1773338402687941 0.34141441358188723 0.923032451918164 1.0 0.0 0.0 1.0
-0.9898748671099061 -0.08410024957228253 0.11434550925167417 1.0 0.0 0.0 1.0
-0.1313296466652844 -0.06843201964205449 0.9889740050145306 1.0 0.0 0.0 1.0
0.49227213463871694 0.1098343245430785 0.8634839700946432 1.0 0.0 0.0 1.0
0.5004234318563185 -0.8388040579783462 0.21443913161595224 1.0 0.0 0.0 1.0
0.5587168144696254 0.46346014933339236 0.6877791878275936 1.0 0.0 0.0 1.0
0.47904951830718245 0.5272592108745606 0.7017900566106593 1.0 0.0 0.0 1.0
-0.4133958025439757 -0.37755491804295294 0.828586865875028 1.0 0.0 0.0 1.0
-0.8293583458901165 -0.35347462486525083 0.4326897545340999 1.0 0.0 0.0 1.0
-0.07133521883126526 0.4178707593153225 0.9057015596009157 1.0 0.0 0.0 1.0
-0.08409101211381126 -0.526293291776391 0.8461347840107066 1.0 0.0 0.0 1.0
-0.4791546667106864 0.8029369343895622 0.35454630834696776 1.0 0.0 0.0 1.0
-0.16343409799207084 -0.8285677652849808 0.5355042053468593 1.0 0.0 0.0 1.0
0.7151932578079107 0.6931761471710256 0.08947308522254101 1.0 0.0 0.0 1.0
-0.45806301526713045 0.3471856444575454 0.8183155884663224 1.0 0.0 0.0 1.0
0.21169579399824745 -0.4087421532914128 0.8877582682950075 1.0 0.0 0.0 1.0
0.9335703655803606 0.17474411564113534 0.3129071212979175 1.0 0.0 0.0 1.0
0.3124171343802309 -0.47499399981603013 0.8226641078133979 1.0 0.0 0.0 1.0
0.5933101390032388 0.6557818515971983 0.4668332058366324 1.0 0.0 0.0 1.0
-0.8023494507795481 0.5575423797488953 0.2130301706747105 1.0 0.0 0.0 1.0
0.08390543267365158 -0.6979110840648002 0.7112524144826102 1.0 0.0 0.0 1.0
-0.2977631889788048 -0.10214020342661581 0.9491598717461365 1.0 0.0 0.0 1.0
0.1763014208476175 -0.31122049011929803 0.933841322461699 1.0 0.0 0.0 1.0
-0.43794941599188136 -0.3366052243916518 0.8336049615642986 1.0 0.0 0.0 1.0
0.9986184783193393 -0.04660749126719932 0.024266778050369833 1.0 0.0 0.0 1.0
-0.4413824517800182 -0.5973103514184507 0.6696281620041283 1.0 0.0 0.0 1.0
0.3599567454645403 -0.6237675768392216 0.6937904233114651 1.0 0.0 0.0 1.0
-0.06134160691130722 -0.13231600487374892 0.9893076781849964 1.0 0.0 0.0 1.0
-0.46194181317485433 0.09695580338139054 0.8815947671302257 1.0 0.0 0.0 1.0
-0.045721176505331626 0.09938954583876039 0.9939976318869844 1.0 0.0 0.0 1.0
0.9737967676275212 -0.14455214296709903 0.17556916962214766 1.0 0.0 0.0 1.0
0.16729581998564572 0.732271762126933 0.6601440562535175 1.0 0.0 0.0 1.0
-0.1313908030183411 -0.9690670925925053 0.20891487964360994 1.0 0.0 0.0 1.0
0.050235222784889635 -0.37299725854922977 0.9264715146762535 1.0 0.0 0.0 1.0
0.7807927229385133 0.21025728282074635 0.5883490450634715 1.0 0.0 0.0 1.0
0.8149828778104746 0.5608184652984779 0.14589570883345665 1.0 0.0 0.0 1.0
-0.6720650529452201 -0.39158996780185185 0.6284790065918537 1.0 0.0 0.0 1.0
-0.2594255844208389 0.8266823812666585 0.4992941083681975 1.0 0.0 0.0 1.0
-0.6636896815904708 0.7377134048376014 0.12367270868406063 1.0 0.0 0.0 1.0
-0.8052621508266637 0.5696092183621778 0.16461532979295712 1.0 0.0 0.0 1.0
-0.6519466863726856 -0.7185302127421362 0.24223924435238864 1.0 0.0 0.0 1.0
-0.6198771706776326 -0.7172979930363093 0.31817586718476365 1.0 0.0 0.0 1.0
0.7019540088021333 0.11644634442392016 0.7026384691980083 1.0 0.0 0.0 1.0
0.8728344124484686 0.1373819330295766 0.4682801436349755 1.0 0.0 0.0 1.0
0.395939905617393 -0.913113399527175 0.0972394505517968 1.0 0.0 0.0 1.0
0.24632541883969863 0.2757271922048835 0.9291384738090755 1.0 0.0 0.0 1.0
-0.4591048890103485 0.5348202643573152 0.7093588553895463 1.0 0.0 0.0 1.0
0.8103224579309869 -0.17282334913710734 0.5599192836165922 1.0 0.0 0.0 1.0
0.8948532165405148 -0.3012887294763079 0.32933694347529097 1.0 0.0 0.0 1.0
-0.39729139948331216 -0.6463172339368257 0.6514856690771039 1.0 0.0 0.0 1.0
-0.6332606147568477 0.7641694176192991 0.12258097312862434 1.0 0.0 0.0 1.0
0.7355236219418315 -0.4220739367453131 0.5299609358112001 1.0 0.0 0.0 1.0
0.3401307463020324 -0.6648653063766902 0.6650302247241493 1.0 0.0 0.0 1.0
-0.6709403579804055 0.12103378626698205 0.7315667150814094 1.0 0.0 0.0 1.0
-0.7699823450153179 -0.5620029807750461 0.3021255334536876 1.0 0.0 0.0 1.0
-0.3206340943742351 -0.8239099271935959 0.46729670381531413 1.0 0.0 0.0 1.0
0.524574178129082 0.8461906650074785 0.09371920878026621 1.0 0.0 0.0 1.0
-0.8218310306726853 -0.2534195178671194 0.5102668958373341 1.0 0.0 0.0 1.0
0.9556871592404174 0.2853126744686217 0.07251711143270792 1.0 0.0 0.0 1.0
-0.5214295291777511 -0.38893155485892983 0.7595021341224029 1.0 0.0 0.0 1.0
0.5999496428524924 0.6936189901174001 0.398689255673745 1.0 0.0 0.0 1.0
-0.12867732334749346 -0.4402930059887516 0.8885855137990454 1.0 0.0 0.0 1.0
0.7070723305623214 -0.7058426687638659 0.04283510599346469 1.0 0.0 0.0 1.0
0.38959124187980626 -0.13485825356634726 0.9110608737595884 1.0 0.0 0.0 1.0
-0.08449785502008836 -0.0420966738673335 0.9955340187790226 1.0 0.0 0.0 1.0
-0.7260760264424932 0.35476152628804347 0.5890312922852721 1.0 0.0 0.0 1.0
-0.015916722331442316 0.2247303470511949 0.9742909878801473 1.0 0.0 0.0 1.0
-0.10007164162847768 -0.8454623130984071 0.5245752030663213 1.0 0.0 0.0 1.0
-0.4757185170267042 -0.7225549755537328 0.5016036282369356 1.0 0.0 0.0 1.0
-0.3074821628975273 0.137945238339232 0.9415019016015799 1.0 0.0 0.0 1.0
0.6727096258439895 -0.08668772370352162 0.7348108585588141 1.0 0.0 0.0 1.0
-0.03426405263903952 -0.06987281391097488 0.9969672836020805 1.0 0.0 0.0 1.0
0.8316283319978918 0.12015991115938776 0.5421770127629649 1.0 0.0 0.0 1.0
0.09208750024452937 -0.587601290188908 0.803893410886695 1.0 0.0 0.0 1.0
-0.6350797673643538 -0.47841201174152337 0.6064615701805572 1.0 0.0 0.0 1.0
0.29202241457222095 0.14929843914152457 0.9446866599340304 1.0 0.0 0.0 1.0
-0.01358580673300422 -0.009108081997038482 0.9998662254010529 1.0 0.0 0.0 1.0
0.01583488386703955 0.6759959430650575 0.7367351908335187 1.0 0.0 0.0 1.0
0.8409481597318736 -0.5376462280278486 0.06117782384983862 1.0 0.0 0.0 1.0
-0.17316088196426965 -0.8881363169115868 0.42571022014990134 1.0 0.0 0.0 1.0
-0.6049405541842658 -0.6812201998992018 0.4122935424579492 1.0 0.0 0.0 1.0
0.5498596108800092 -0.16645596686251685 0.8185027913322896 1.0 0.0 0.0 1.0
0.8817777733920898 0.46861629108505215 0.0535418535482093 1.0 0.0 0.0 1.0
-0.805105788263974 -0.5480212325686777 0.22688631152573419 1.0 0.0 0.0 1.0
-0.6157587077194768 -0.6002021281581387 0.5104886083176403 1.0 0.0 0.0 1.0
-0.9229399766515788 -0.12385975564664904 0.36447298998627503 1.0 0.0 0.0 1.0
-0.6952195988078538 0.7074720697232527 0.12709437436387108 1.0 0.0 0.0 1.0
-0.45542141999773783 -0.4439874818306285 0.7716647239474808 1.0 0.0 0.0 1.0
0.048262379730739144 -0.17937467281311978 0.9825962901700332 1.0 0.0 0.0 1.0
-0.7780909690697531 -0.5761787341722 0.2501849518652436 1.0 0.0 0.0 1.0
-0.5668060048852415 -0.3693199179334493 0.7364331273399249 1.0 0.0 0.0 1.0
0.32649779747943636 -0.6821611087653666 0.6542594362552845 1.0 0.0 0.0 1.0
-0.9723008892522224 0.2272242318349471 0.05477343540765167 1.0 0.0 0.0 1.0
-0.0519807587288028 0.39765481661692753 0.9160614867700396 1.0 0.0 0.0 1.0
0.4277828235764381 -0.8149100014753701 0.39105440203171465 1.0 0.0 0.0 1.0
0.01761344231174709 0.14509838702719074 0.9892604433272555 1.0 0.0 0.0 1.0
0.5275909665122119 -0.39654384038319546 0.7512661011311885 1.0 0.0 0.0 1.0
-0.5049105019712511 0.2372507729500139 0.8299261748696448 1.0 0.0 0.0 1.0
-0.664012418274408 0.2847467479721378 0.6913803568924015 1.0 0.0 0.0 1.0
0.6076839467844982 0.7537743708351076 0.2500888216065515 1.0 0.0 0.0 1.0
-0.12109172785334388 0.11130670046847203 0.9863810682876641 1.0 0.0 0.0 1.0
0.9383229833519158 0.11554897508152852 0.3258809802231001 1.0 0.0 0.0 1.0
0.8050786276526457 -0.06599776494768153 0.5894851128899212 1.0 0.0 0.0 1.0
0.9280565724767603 -0.11604896290494282 0.3538977768952142 1.0 0.0 0.0 1.0
-0.0637235422481146 -0.020746901038084135 0.99775191117866 1.0 0.0 0.0 1.0
